ply
format ascii 1.0
element vertex 840
property float x
property float y
property float z
property float nx
property float ny
property float nz
end_header
-0.059952 0.059249 0.004684 -0.389636 -0.875457 -0.285933
-0.060677 0.058930 0.007225 -0.240439 -0.959431 -0.147248
-0.060712 0.059080 0.006483 -0.289050 -0.934062 -0.209711
-0.061391 0.058843 0.008958 -0.240161 -0.959501 -0.147242
-0.061441 0.058966 0.008238 -0.240332 -0.959425 -0.147460
-0.062092 0.058783 0.010669 -0.184809 -0.979718 -0.077453
-0.062155 0.058879 0.009970 -0.240003 -0.959492 -0.147555
-0.062705 0.058888 0.012252 -0.222018 -0.974898 0.016773
-0.062814 0.058901 0.011617 -0.221788 -0.974945 0.017080
-0.063273 0.059074 0.013769 -0.302894 -0.952896 -0.015649
-0.063382 0.059088 0.013134 -0.241808 -0.967787 0.070117
-0.063797 0.059344 0.015222 -0.349509 -0.932396 0.092091
-0.063921 0.059330 0.014609 -0.349921 -0.932304 0.091462
-0.064250 0.059740 0.016569 -0.274783 -0.924249 0.265063
-0.064404 0.059672 0.015999 -0.365632 -0.921336 0.132110
-0.064657 0.060218 0.017846 -0.324106 -0.921656 0.213320
-0.064825 0.060127 0.017299 -0.278710 -0.919418 0.277473
-0.065068 0.060681 0.019119 -0.328370 -0.914438 0.236591
-0.065232 0.060600 0.018571 -0.330584 -0.914466 0.233379
-0.065453 0.061195 0.020354 -0.322371 -0.896381 0.304266
-0.065630 0.061089 0.019824 -0.341265 -0.898142 0.277269
-0.065796 0.061785 0.021530 -0.343837 -0.867715 0.358953
-0.065989 0.061649 0.021022 -0.340054 -0.867033 0.364166
-0.066150 0.062359 0.022734 -0.346289 -0.891496 0.292095
-0.066329 0.062246 0.022202 -0.330768 -0.890044 0.313710
-0.066446 0.063040 0.023847 -0.455955 -0.788826 0.412138
-0.066654 0.062875 0.023363 -0.399177 -0.775019 0.489902
-0.066727 0.063749 0.024930 -0.462035 -0.797051 0.388887
-0.066920 0.063610 0.024426 -0.453193 -0.795566 0.402107
-0.067010 0.064448 0.026022 -0.387765 -0.801377 0.455448
-0.067209 0.064300 0.025523 -0.454225 -0.814203 0.361598
-0.067273 0.065189 0.027084 -0.463872 -0.791397 0.398138
-0.067479 0.065026 0.026597 -0.396528 -0.775436 0.491391
-0.067569 0.065864 0.028197 -0.443407 -0.819641 0.362738
-0.067756 0.065739 0.027678 -0.450577 -0.820470 0.351866
-0.067849 0.066568 0.029287 -0.459440 -0.784979 0.415601
-0.068049 0.066420 0.028788 -0.458756 -0.784848 0.416600
-0.068123 0.067286 0.030362 -0.461890 -0.790053 0.403081
-0.068319 0.067142 0.029861 -0.457723 -0.789309 0.409245
-0.068378 0.068045 0.031401 -0.466441 -0.749170 0.470295
-0.068585 0.067878 0.030920 -0.475834 -0.751484 0.457004
-0.068608 0.068847 0.032411 -0.454492 -0.736772 0.500603
-0.068824 0.068667 0.031937 -0.468946 -0.740739 0.481035
-0.069102 0.069792 0.033245 -0.451096 -0.704303 0.548151
-0.068743 0.069413 0.033062 -0.464843 -0.693635 0.550265
-0.068996 0.070587 0.034333 -0.356600 -0.689424 0.630501
-0.069235 0.070362 0.033892 -0.446650 -0.723794 0.525953
-0.069165 0.071514 0.035254 -0.383626 -0.693579 0.609737
-0.069414 0.071265 0.034831 -0.357903 -0.682499 0.637261
-0.069608 0.072556 0.036017 -0.435378 -0.600503 0.670703
-0.069265 0.072147 0.035851 -0.392954 -0.634482 0.665598
-0.069381 0.073585 0.036927 -0.338372 -0.494152 0.800823
-0.069671 0.073264 0.036560 -0.438680 -0.541586 0.717109
-0.069400 0.074814 0.037647 -0.363317 -0.476142 0.800806
-0.069708 0.074450 0.037301 -0.340077 -0.464947 0.817418
-0.069415 0.076039 0.038357 -0.385453 -0.470552 0.793729
-0.069720 0.075689 0.038011 -0.363548 -0.460236 0.809948
-0.069736 0.077345 0.038956 -0.424979 -0.435868 0.793355
-0.069428 0.076855 0.038834 -0.385452 -0.470598 0.793702
-0.012055 0.108431 -0.021514 -0.297170 0.452125 -0.840995
-0.057738 0.061226 0.025473 -0.241358 -0.909776 0.337717
-0.036795 0.035582 0.044511 -0.455449 -0.724916 0.516781
-0.059406 0.037317 0.046046 -0.502092 -0.061622 0.862616
-0.006613 0.038584 0.005715 0.041084 -0.999024 0.016199
-0.006041 0.038600 0.005211 0.041353 -0.999014 0.016145
0.005290 0.037959 -0.012399 -0.243084 -0.870314 0.428326
0.004749 0.038672 -0.010658 -0.265537 -0.954031 0.138980
0.010563 0.034387 -0.019319 0.131388 -0.990194 -0.047462
0.009224 0.034189 -0.016951 0.123153 -0.991886 -0.031535
-0.005849 0.034877 0.046485 -0.010506 -0.954865 0.296855
-0.006745 0.035477 0.048134 0.117879 -0.844860 0.521839
0.001042 0.034932 0.044876 0.090136 -0.963020 0.253907
0.001554 0.034840 0.044464 -0.004694 -0.957258 0.289199
0.001580 0.034690 0.043405 0.043183 -0.998974 0.013650
0.002121 0.034653 0.042952 -0.137811 -0.989196 0.049985
0.027291 0.037261 0.024694 0.241891 -0.898006 0.367525
0.027811 0.037214 0.024247 0.231821 -0.898154 0.373603
0.026846 0.037665 0.026049 0.303739 -0.893545 0.330635
0.027399 0.037649 0.025573 0.241975 -0.898381 0.366552
0.002207 0.034614 0.041806 -0.122008 -0.992529 -0.000957
0.002763 0.034604 0.041331 0.049832 -0.998298 -0.030294
0.026346 0.038002 0.027467 0.407964 -0.864094 0.294800
0.026932 0.038046 0.026941 0.302030 -0.879449 0.367896
0.025800 0.038354 0.028971 0.472872 -0.808015 0.351430
0.026443 0.038411 0.028336 0.407557 -0.816976 0.407979
0.003996 0.034833 0.038385 -0.081544 -0.988400 -0.128129
0.002921 0.034703 0.040078 0.062657 -0.992172 -0.108018
0.001147 0.035332 0.045732 0.039189 -0.811660 0.582814
-0.024350 0.101087 -0.023885 -0.080764 0.109993 -0.990646
0.025223 0.038595 0.030468 0.583810 -0.775049 0.241794
0.007476 0.039055 0.031125 -0.356415 -0.929603 -0.093845
0.025905 0.038798 0.029812 0.477511 -0.791880 0.380669
-0.058815 0.033603 -0.009459 -0.109492 -0.993059 -0.042956
-0.058256 0.033590 -0.009944 -0.023690 -0.998196 -0.055160
-0.059540 0.033522 -0.007702 -0.013917 -0.995370 -0.095107
-0.058966 0.033537 -0.008210 -0.095991 -0.991688 -0.085675
-0.060263 0.033439 -0.005946 0.048077 -0.998460 -0.027669
-0.059690 0.033455 -0.006453 -0.033243 -0.999346 -0.014196
-0.060972 0.033382 -0.004215 -0.032574 -0.999353 -0.015266
-0.060398 0.033398 -0.004720 0.048217 -0.998429 -0.028547
-0.061633 0.033406 -0.002560 0.041624 -0.999023 0.014832
-0.061076 0.033395 -0.003039 -0.043629 -0.998543 0.031766
-0.062304 0.033402 -0.000885 0.041762 -0.999022 0.014526
-0.061734 0.033419 -0.001387 0.041671 -0.999026 0.014544
-0.062976 0.033398 0.000785 0.041867 -0.999020 0.014376
-0.062405 0.033415 0.000286 0.041784 -0.999023 0.014393
-0.063615 0.033454 0.002407 0.018620 -0.997714 0.064969
-0.063062 0.033438 0.001934 0.034092 -0.997534 0.061353
-0.064252 0.033513 0.004022 0.024222 -0.999065 0.035819
-0.063693 0.033509 0.003541 0.023843 -0.999071 0.035901
-0.064884 0.033580 0.005628 -0.058501 -0.996902 0.052577
-0.064338 0.033551 0.005168 0.024379 -0.999092 0.034938
-0.065500 0.033671 0.007211 0.025135 -0.999110 0.033880
-0.064955 0.033643 0.006752 -0.058328 -0.996950 0.051861
-0.066116 0.033761 0.008793 -0.149316 -0.986285 0.070336
-0.065584 0.033707 0.008354 0.025270 -0.999132 0.033119
-0.066691 0.033926 0.010311 -0.057506 -0.997084 0.050168
-0.066173 0.033847 0.009894 -0.149078 -0.986376 0.069560
-0.067208 0.034194 0.011749 -0.289251 -0.934947 0.205446
-0.066733 0.034038 0.011391 -0.082400 -0.984725 0.153386
-0.067270 0.034679 0.013084 -0.419484 -0.859317 0.292587
-0.067457 0.034554 0.012565 -0.347314 -0.849565 0.397005
-0.067621 0.035139 0.013537 -0.501826 -0.571974 0.648858
-0.020210 0.161544 -0.014442 -0.067880 -0.741526 -0.667481
0.024623 0.038676 0.031982 0.646132 -0.716769 0.262213
-0.033697 0.034449 0.037988 -0.065873 -0.993307 0.094879
0.025328 0.038982 0.031258 0.591718 -0.733998 0.333342
-0.057608 0.057213 0.005290 -0.740251 -0.644995 -0.189764
-0.027045 0.037684 0.020473 0.118349 -0.992972 -0.000880
-0.026458 0.037728 0.019953 0.042809 -0.998979 0.014421
-0.086441 0.115640 0.046835 -0.472502 -0.535645 0.699876
-0.009434 0.037759 0.049567 0.290714 0.236887 0.927022
-0.059214 0.058515 0.006093 -0.481130 -0.876070 -0.031851
-0.059234 0.058693 0.005328 -0.591726 -0.755186 -0.282055
-0.059841 0.058592 0.007698 -0.281285 -0.957527 -0.063403
-0.059891 0.058716 0.006976 -0.376256 -0.904543 -0.200580
-0.060511 0.058588 0.009367 -0.184969 -0.979705 -0.077235
-0.060576 0.058683 0.008667 -0.240265 -0.959469 -0.147283
-0.061198 0.058555 0.011057 -0.240167 -0.959446 -0.147588
-0.061262 0.058651 0.010357 -0.184870 -0.979704 -0.077478
-0.061839 0.058605 0.012681 -0.355998 -0.929693 -0.094528
-0.061918 0.058673 0.012004 -0.303012 -0.952849 -0.016181
-0.062408 0.058792 0.014200 -0.262008 -0.956527 0.128094
-0.062517 0.058806 0.013565 -0.380940 -0.923335 -0.048347
-0.063191 0.059211 0.015466 -0.171670 -0.971556 0.163118
-0.062724 0.059036 0.015119 -0.283024 -0.940268 0.189191
-0.063641 0.059616 0.016810 -0.304131 -0.918295 0.253454
-0.063188 0.059415 0.016484 -0.189660 -0.955636 0.225365
-0.063752 0.060008 0.018213 -0.295352 -0.928587 0.224707
-0.063916 0.059927 0.017664 -0.295015 -0.928578 0.225186
-0.064162 0.060475 0.019487 -0.295926 -0.920126 0.256508
-0.064330 0.060381 0.018942 -0.302557 -0.920524 0.247175
-0.064538 0.061009 0.020715 -0.288573 -0.894826 0.340607
-0.064723 0.060882 0.020193 -0.312088 -0.898610 0.308384
-0.064881 0.061595 0.021891 -0.325199 -0.882068 0.340884
-0.065075 0.061457 0.021384 -0.299101 -0.876796 0.376521
-0.065525 0.062260 0.022945 -0.161603 -0.918783 0.360169
-0.065097 0.062012 0.022655 -0.344888 -0.843820 0.411120
-0.065856 0.062879 0.024111 -0.366877 -0.813565 0.451124
-0.065438 0.062615 0.023837 -0.169985 -0.902166 0.396487
-0.065835 0.063516 0.025318 -0.362229 -0.825225 0.433352
-0.066042 0.063352 0.024833 -0.362297 -0.825243 0.433261
-0.066110 0.064232 0.026397 -0.386624 -0.810131 0.440693
-0.066321 0.064061 0.025915 -0.369781 -0.805640 0.462824
-0.066395 0.064932 0.027491 -0.424529 -0.822655 0.378172
-0.066593 0.064782 0.026992 -0.384838 -0.814711 0.433758
-0.066691 0.065609 0.028603 -0.383938 -0.818852 0.426700
-0.066888 0.065463 0.028102 -0.422778 -0.826277 0.372190
-0.066967 0.066320 0.029684 -0.406124 -0.809447 0.424097
-0.067173 0.066158 0.029197 -0.389138 -0.805428 0.447055
-0.067242 0.067036 0.030758 -0.388974 -0.802245 0.452882
-0.067448 0.066873 0.030274 -0.407207 -0.806702 0.428270
-0.067489 0.067808 0.031791 -0.392558 -0.765297 0.510116
-0.067710 0.067617 0.031327 -0.400265 -0.767763 0.500328
-0.067711 0.068621 0.032796 -0.386116 -0.749009 0.538424
-0.067940 0.068417 0.032339 -0.396208 -0.752505 0.526076
-0.067908 0.069486 0.033761 -0.391457 -0.710271 0.585045
-0.068148 0.069258 0.033322 -0.395041 -0.711676 0.580913
-0.068083 0.070401 0.034692 -0.396526 -0.680987 0.615649
-0.068330 0.070157 0.034263 -0.397232 -0.681278 0.614871
-0.068244 0.071339 0.035602 -0.326774 -0.660756 0.675736
-0.068500 0.071081 0.035186 -0.394645 -0.691221 0.605367
-0.068375 0.072327 0.036469 -0.310810 -0.636943 0.705479
-0.068648 0.072038 0.036078 -0.329096 -0.646210 0.688555
-0.068439 0.073457 0.037247 -0.352894 -0.510135 0.784364
-0.068742 0.073102 0.036893 -0.325265 -0.496310 0.804909
-0.068470 0.074650 0.037977 -0.384004 -0.491843 0.781429
-0.068771 0.074305 0.037626 -0.355008 -0.477668 0.803618
-0.068488 0.075872 0.038694 -0.357669 -0.458146 0.813741
-0.068794 0.075509 0.038344 -0.384436 -0.470755 0.794102
-0.068500 0.077115 0.039406 -0.341184 -0.468337 0.815018
-0.068808 0.076748 0.039059 -0.356690 -0.476085 0.803813
-0.058264 0.061097 0.024888 -0.168652 -0.900807 0.400128
-0.058325 0.060762 0.024151 -0.178977 -0.877504 0.444920
-0.007923 0.038525 0.049086 0.171441 -0.038118 0.984457
-0.023012 0.037169 0.054139 0.056850 -0.058890 0.996644
-0.005922 0.038612 0.004009 0.048362 -0.998465 -0.027000
-0.005320 0.038682 0.003461 0.119905 -0.992024 -0.038879
0.004614 0.038622 -0.011264 -0.265747 -0.954013 0.138699
0.003881 0.038982 -0.009240 -0.048265 -0.997763 0.046252
0.036031 0.039070 0.023042 0.298051 -0.881707 0.365730
0.009985 0.034309 -0.018797 0.063185 -0.997381 -0.035201
-0.006270 0.035323 0.047780 0.115550 -0.844417 0.523076
0.037448 0.041939 0.027433 0.220394 -0.774415 0.593050
0.008637 0.036834 0.027932 -0.502351 -0.622086 0.600543
0.008401 0.038062 0.029192 -0.570252 -0.700170 0.429622
-0.067567 0.036060 0.014028 -0.748503 0.028070 0.662537
-0.018326 0.038329 0.024683 0.034501 -0.997502 0.061643
-0.019596 0.038456 0.027911 0.042362 -0.999005 0.013941
0.001513 0.036015 0.020576 -0.570214 -0.700315 0.429436
0.001317 0.035864 0.020069 -0.569984 -0.700275 0.429805
0.014780 0.034815 0.029789 0.042144 -0.998999 0.015011
0.008300 0.037256 0.028087 -0.502896 -0.621605 0.600585
0.009648 0.034632 0.039725 0.117360 -0.993088 -0.001587
0.008394 0.034787 0.042928 0.103962 -0.984469 0.141465
-0.009533 0.034706 0.046435 0.031448 -0.999117 0.027859
0.008797 0.035877 0.027013 -0.392264 -0.708326 0.586858
-0.008344 0.034663 0.044365 -0.111485 -0.993165 -0.034566
-0.005186 0.034676 0.043817 -0.011396 -0.994890 -0.100320
0.003505 0.034747 0.039560 -0.094259 -0.991530 -0.089347
-0.005840 0.034698 0.045454 0.031501 -0.997578 0.062021
-0.004631 0.034666 0.043341 -0.183622 -0.979902 -0.077939
0.008079 0.038717 0.030348 -0.509703 -0.827522 0.235392
0.006906 0.039243 0.032644 -0.241494 -0.967813 0.070841
-0.003810 0.039223 0.034670 0.042811 -0.998982 0.014249
-0.003253 0.039213 0.034193 -0.042511 -0.998601 0.031460
0.022168 0.034922 0.008726 -0.532276 -0.790761 0.302291
0.008976 0.034627 0.041391 0.034822 -0.997495 0.061571
0.010875 0.034627 0.037580 -0.031728 -0.999373 -0.015746
0.015453 0.034818 0.028115 0.042009 -0.999001 0.015216
-0.057833 0.033539 -0.009203 -0.023702 -0.998196 -0.055165
-0.057245 0.033581 -0.009733 0.053367 -0.996422 -0.065542
-0.058557 0.033458 -0.007446 -0.023379 -0.998159 -0.055967
-0.057983 0.033473 -0.007954 -0.023515 -0.998157 -0.055949
-0.059251 0.033430 -0.005732 -0.032929 -0.999359 -0.014071
-0.058692 0.033419 -0.006218 -0.033256 -0.999349 -0.014016
-0.059930 0.033428 -0.004045 0.116281 -0.993216 -0.000065
-0.059355 0.033444 -0.004549 -0.043635 -0.998556 0.031321
-0.060620 0.033397 -0.002346 -0.043349 -0.998551 0.031876
-0.060047 0.033414 -0.002846 0.116329 -0.993211 -0.000550
-0.061262 0.033448 -0.000715 0.041369 -0.999040 0.014424
-0.060705 0.033437 -0.001195 -0.043265 -0.998566 0.031519
-0.061934 0.033444 0.000957 0.041521 -0.999035 0.014287
-0.061362 0.033461 0.000457 0.041387 -0.999041 0.014314
-0.062593 0.033467 0.002603 -0.043377 -0.998570 0.031234
-0.062036 0.033457 0.002126 0.041532 -0.999036 0.014223
-0.063233 0.033519 0.004226 -0.047505 -0.998842 0.007552
-0.062686 0.033492 0.003762 -0.037422 -0.999283 0.005688
-0.063864 0.033586 0.005832 0.024585 -0.999084 0.035020
-0.063318 0.033557 0.005372 -0.058546 -0.996885 0.052848
-0.064494 0.033652 0.007434 -0.058088 -0.996959 0.051954
-0.063948 0.033624 0.006976 0.024761 -0.999114 0.034038
-0.065109 0.033741 0.009018 0.025436 -0.999126 0.033185
-0.064564 0.033714 0.008557 -0.057878 -0.997016 0.051090
-0.065711 0.033855 0.010577 -0.069588 -0.992526 0.100245
-0.065179 0.033802 0.010140 0.017267 -0.996733 0.078894
-0.066258 0.034071 0.012054 -0.165529 -0.978566 0.122507
-0.065754 0.033967 0.011656 -0.069482 -0.992578 0.099805
-0.066692 0.034493 0.013368 -0.419247 -0.859396 0.292695
-0.066258 0.034260 0.013072 -0.199406 -0.950147 0.239704
-0.068255 0.180938 -0.058130 -0.146440 0.747976 -0.647369
-0.046046 0.069169 0.040611 -0.367087 -0.444371 0.817179
0.008445 0.036272 0.027190 -0.502389 -0.621803 0.600805
-0.058572 0.058110 0.006231 -0.559793 -0.825771 -0.068808
0.049142 0.043809 0.017632 0.552041 -0.828384 0.095027
-0.033464 0.034737 0.043047 -0.064658 -0.993597 0.092649
-0.035381 0.034589 0.040433 -0.052765 -0.997724 0.041995
0.012017 0.034662 0.036582 0.049546 -0.998334 -0.029554
-0.079965 0.105639 0.031303 -0.755282 0.186864 0.628196
-0.082005 0.110167 0.030067 -0.657612 -0.751102 0.058245
-0.072329 0.074403 0.035615 -0.569751 -0.507382 0.646489
-0.027796 0.124289 -0.000039 -0.085112 0.953460 -0.289256
-0.058991 0.058282 0.008149 -0.303712 -0.952626 -0.016222
-0.059069 0.058350 0.007470 -0.356527 -0.929525 -0.094190
-0.059648 0.058305 0.009797 -0.310087 -0.934476 -0.174930
-0.059698 0.058428 0.009077 -0.260259 -0.959537 -0.107494
-0.060333 0.058273 0.011486 -0.202707 -0.978712 -0.032123
-0.060397 0.058368 0.010787 -0.309980 -0.934478 -0.175110
-0.060959 0.058350 0.013090 -0.202532 -0.978753 -0.032000
-0.061054 0.058391 0.012433 -0.202680 -0.978716 -0.032192
-0.061497 0.058591 0.014565 -0.262309 -0.956486 0.127784
-0.061636 0.058550 0.013974 -0.262118 -0.956503 0.128050
-0.061964 0.058971 0.015933 -0.282890 -0.940255 0.189458
-0.062117 0.058902 0.015362 -0.283103 -0.940251 0.189159
-0.062415 0.059378 0.017277 -0.282821 -0.940282 0.189427
-0.062569 0.059309 0.016707 -0.282861 -0.940281 0.189372
-0.062841 0.059810 0.018578 -0.289683 -0.928576 0.232015
-0.063007 0.059727 0.018029 -0.294597 -0.928754 0.225010
-0.063537 0.060378 0.019706 -0.188628 -0.936140 0.296751
-0.063098 0.060152 0.019404 -0.320879 -0.887126 0.331728
-0.063912 0.060915 0.020933 -0.226339 -0.903761 0.363301
-0.063473 0.060690 0.020630 -0.204389 -0.911499 0.356924
-0.064269 0.061475 0.022127 -0.290679 -0.888774 0.354383
-0.063837 0.061243 0.021838 -0.218859 -0.916648 0.334450
-0.064578 0.062128 0.023255 -0.260869 -0.858146 0.442191
-0.064168 0.061849 0.022995 -0.319042 -0.829909 0.457672
-0.064925 0.062717 0.024443 -0.342303 -0.878186 0.334094
-0.064493 0.062478 0.024150 -0.225080 -0.925762 0.303816
-0.064927 0.063314 0.025685 -0.349847 -0.818365 0.455946
-0.065136 0.063145 0.025202 -0.369221 -0.823621 0.430494
-0.065214 0.064011 0.026780 -0.412703 -0.832599 0.369399
-0.065415 0.063856 0.026283 -0.349782 -0.818532 0.455694
-0.065518 0.064674 0.027906 -0.420710 -0.825814 0.375546
-0.065710 0.064537 0.027393 -0.416403 -0.825115 0.381831
-0.065807 0.065362 0.029006 -0.431142 -0.806455 0.404656
-0.066005 0.065215 0.028504 -0.429731 -0.806179 0.406702
-0.066097 0.066064 0.030077 -0.434263 -0.801840 0.410448
-0.066287 0.065917 0.029591 -0.433189 -0.801626 0.411998
-0.066362 0.066798 0.031137 -0.400994 -0.779937 0.480523
-0.066571 0.066630 0.030655 -0.439109 -0.788395 0.430832
-0.066597 0.067574 0.032182 -0.447060 -0.772922 0.450253
-0.066812 0.067396 0.031705 -0.406551 -0.761878 0.504241
-0.067112 0.068478 0.033047 -0.416351 -0.741736 0.525813
-0.066748 0.068114 0.032854 -0.466206 -0.705113 0.534291
-0.067009 0.069273 0.034135 -0.407549 -0.695403 0.591877
-0.067246 0.069049 0.033695 -0.425643 -0.702174 0.570771
-0.067173 0.070204 0.035051 -0.370490 -0.660840 0.652708
-0.067424 0.069954 0.034630 -0.410715 -0.677810 0.609826
-0.067315 0.071177 0.035936 -0.364003 -0.649441 0.667629
-0.067576 0.070910 0.035529 -0.371672 -0.652921 0.659965
-0.067437 0.072186 0.036790 -0.327362 -0.608504 0.722881
-0.067711 0.071895 0.036400 -0.366810 -0.627761 0.686561
-0.067497 0.073327 0.037571 -0.335894 -0.512335 0.790372
-0.067799 0.072974 0.037213 -0.337015 -0.512896 0.789531
-0.067527 0.074523 0.038300 -0.302441 -0.482186 0.822208
-0.067837 0.074156 0.037956 -0.336746 -0.500424 0.797608
-0.067547 0.075743 0.039021 -0.376284 -0.503566 0.777709
-0.067854 0.075379 0.038672 -0.303925 -0.467254 0.830242
-0.067567 0.076967 0.039741 -0.372913 -0.459684 0.805994
-0.067873 0.076602 0.039389 -0.377243 -0.461719 0.802809
-0.067590 0.078187 0.040468 -0.394505 -0.494708 0.774357
-0.067888 0.077843 0.040108 -0.371439 -0.483578 0.792581
-0.072300 0.036618 0.002110 -0.928206 0.366415 0.064609
-0.058337 0.157931 0.004331 -0.767428 0.640993 0.013495
-0.004596 0.038755 0.001699 0.039623 -0.998944 0.023266
-0.067876 0.180084 -0.058990 -0.445355 0.402346 -0.799861
0.004398 0.038880 -0.009667 -0.245298 -0.965914 0.082696
0.003271 0.039142 -0.007636 -0.245571 -0.965907 0.081962
0.036532 0.038744 0.021617 0.358072 -0.891690 0.276902
0.037134 0.038815 0.021069 0.356783 -0.891948 0.277732
0.037151 0.043065 0.028781 0.102407 -0.727328 0.678607
-0.012140 0.034838 0.047525 0.012665 -0.992000 0.125598
0.009511 0.034704 0.024592 -0.067895 -0.988110 0.137943
0.008648 0.035398 0.026207 -0.362470 -0.812313 0.456905
-0.011018 0.034740 -0.018285 -0.179546 -0.737167 0.651420
-0.010797 0.036221 -0.017113 -0.116752 -0.500681 0.857722
-0.007817 0.038207 -0.015228 -0.064695 -0.789512 0.610316
-0.008675 0.038956 -0.013591 0.091719 -0.974293 0.205770
0.000717 0.034581 0.010820 -0.381168 -0.923315 -0.046910
0.000623 0.034621 0.010160 -0.326841 -0.944390 0.036088
0.004769 0.034470 0.000675 -0.294331 -0.935001 -0.197844
0.002515 0.034330 0.005296 -0.205796 -0.978294 -0.024257
-0.030329 0.034563 0.041532 -0.065437 -0.993430 0.093884
0.010273 0.034665 0.021761 0.003902 -0.986043 -0.166445
0.010875 0.034736 0.021215 -0.071344 -0.984375 -0.160985
-0.023840 0.038016 0.015416 0.041906 -0.999012 0.014778
-0.006527 0.036630 0.048820 0.350388 -0.117867 0.929158
-0.006902 0.036060 0.048734 0.037149 -0.515468 0.856103
0.003307 0.039279 0.030672 0.034563 -0.997478 0.061994
0.007928 0.038647 0.029776 -0.509629 -0.827531 0.235523
0.007569 0.039014 0.031782 -0.241580 -0.967774 0.071076
0.017842 0.035455 0.004266 -0.532280 -0.790514 0.302930
0.008190 0.037884 0.028707 -0.492690 -0.681183 0.541523
-0.009732 0.033914 -0.021027 -0.049304 -0.997653 0.047512
0.017648 0.035297 0.003749 -0.378653 -0.764654 0.521465
0.016685 0.034809 0.025960 0.112907 -0.992632 0.043968
-0.055676 0.033760 -0.010804 0.059100 -0.993159 -0.100714
-0.056836 0.033503 -0.008969 -0.083839 -0.988888 -0.122763
-0.056233 0.033571 -0.009522 0.064370 -0.988661 -0.135665
-0.057560 0.033422 -0.007212 -0.023380 -0.998163 -0.055894
-0.057001 0.033410 -0.007698 -0.109355 -0.993041 -0.043717
-0.058239 0.033421 -0.005520 0.041201 -0.999026 0.015778
-0.057681 0.033410 -0.006007 -0.043971 -0.998509 0.032358
-0.058916 0.033419 -0.003830 -0.122658 -0.992449 0.000103
-0.058358 0.033408 -0.004315 0.048271 -0.998429 -0.028441
-0.059576 0.033443 -0.002175 0.048419 -0.998413 -0.028775
-0.059019 0.033432 -0.002654 -0.122796 -0.992432 0.000546
-0.060248 0.033439 -0.000502 -0.043452 -0.998560 0.031446
-0.059692 0.033429 -0.000981 0.041393 -0.999038 0.014515
-0.060907 0.033463 0.001148 -0.032484 -0.999354 -0.015394
-0.060350 0.033452 0.000669 -0.032492 -0.999353 -0.015393
-0.061565 0.033486 0.002796 0.041708 -0.999028 0.014294
-0.061008 0.033476 0.002318 -0.043280 -0.998571 0.031334
-0.062227 0.033502 0.004446 0.025394 -0.999210 0.030582
-0.061662 0.033506 0.003959 0.039496 -0.998839 0.027594
-0.062857 0.033567 0.006056 -0.058246 -0.996896 0.052964
-0.062313 0.033538 0.005595 0.024568 -0.999079 0.035180
-0.063487 0.033632 0.007660 -0.046383 -0.998907 0.005726
-0.062941 0.033604 0.007201 -0.046865 -0.998884 0.005816
-0.064102 0.033722 0.009240 -0.057783 -0.997019 0.051127
-0.063571 0.033669 0.008801 -0.057597 -0.997032 0.051087
-0.064704 0.033836 0.010801 -0.057289 -0.997092 0.050250
-0.064173 0.033783 0.010362 -0.057589 -0.997072 0.050314
-0.065291 0.033974 0.012337 -0.149092 -0.986412 0.069014
-0.064773 0.033896 0.011920 -0.057099 -0.997142 0.049470
-0.065784 0.034293 0.013733 -0.288944 -0.935082 0.205261
-0.065321 0.034111 0.013396 -0.181382 -0.966974 0.179058
-0.057263 0.158899 0.004946 -0.712930 0.678118 0.178571
-0.057951 0.158187 0.005111 -0.674224 0.721985 0.155433
-0.064662 0.036359 0.040990 -0.837871 -0.024443 0.545320
0.051723 0.045675 0.017541 0.597896 -0.787479 0.149656
0.012717 0.034721 0.034871 -0.021605 -0.998052 -0.058522
-0.012866 0.038263 0.015624 -0.043572 -0.998539 0.031970
0.048391 0.043688 0.019424 0.480542 -0.832922 0.274444
0.049124 0.043964 0.018679 0.569107 -0.804011 0.172288
-0.013280 0.038740 -0.004987 -0.025374 -0.998545 -0.047583
-0.022929 0.038021 0.016802 -0.032267 -0.999362 -0.015320
-0.058418 0.060351 -0.001696 -0.486792 -0.801975 -0.346222
-0.066889 0.078679 0.041098 -0.352184 -0.466204 0.811554
-0.058252 0.057982 0.007939 -0.470519 -0.878069 -0.087216
-0.081531 0.079333 0.029431 -0.737333 -0.514509 0.437746
-0.058782 0.058022 0.010227 -0.184789 -0.979751 -0.077080
-0.058847 0.058118 0.009529 -0.240078 -0.959506 -0.147343
-0.059439 0.058045 0.011873 -0.259804 -0.959684 -0.107275
-0.059518 0.058114 0.011195 -0.202671 -0.978720 -0.032108
-0.060063 0.058122 0.013478 -0.221471 -0.975012 0.017359
-0.060159 0.058163 0.012821 -0.280911 -0.957638 -0.063395
-0.060588 0.058391 0.014930 -0.261893 -0.956592 0.127841
-0.060725 0.058350 0.014338 -0.261781 -0.956602 0.127996
-0.061054 0.058771 0.016298 -0.283269 -0.940190 0.189212
-0.061207 0.058702 0.015727 -0.283176 -0.940192 0.189342
-0.061794 0.059271 0.017499 -0.189684 -0.955655 0.225262
-0.061340 0.059069 0.017173 -0.304232 -0.918178 0.253754
-0.062218 0.059714 0.018797 -0.176611 -0.945246 0.274442
-0.061763 0.059525 0.018470 -0.205348 -0.937024 0.282523
-0.062613 0.060208 0.020050 -0.344393 -0.881813 0.322179
-0.062175 0.059984 0.019748 -0.177815 -0.943717 0.278889
-0.062675 0.060692 0.021381 -0.352719 -0.890599 0.287092
-0.062853 0.060585 0.020852 -0.339505 -0.889429 0.306028
-0.063313 0.061358 0.022429 -0.158420 -0.921361 0.354961
-0.062889 0.061102 0.022151 -0.390552 -0.818884 0.420592
-0.063651 0.061963 0.023595 -0.360091 -0.821679 0.441790
-0.063227 0.061703 0.023318 -0.165817 -0.906875 0.387406
-0.063992 0.062557 0.024773 -0.233358 -0.924701 0.300787
-0.063559 0.062321 0.024477 -0.327953 -0.886857 0.325472
-0.064319 0.063186 0.025926 -0.355911 -0.817086 0.453540
-0.063911 0.062900 0.025670 -0.266620 -0.862317 0.430492
-0.064311 0.063800 0.027160 -0.333106 -0.848827 0.410527
-0.064513 0.063643 0.026663 -0.341483 -0.850812 0.399385
-0.064915 0.064533 0.028154 -0.301570 -0.853946 0.424065
-0.064509 0.064250 0.027899 -0.339346 -0.834679 0.433769
-0.065213 0.065207 0.029267 -0.361218 -0.824885 0.434840
-0.064808 0.064919 0.029013 -0.300474 -0.856506 0.419658
-0.065204 0.065835 0.030463 -0.380743 -0.824500 0.418610
-0.065410 0.065674 0.029977 -0.363358 -0.819544 0.443079
-0.065461 0.066567 0.031536 -0.426933 -0.788219 0.443214
-0.065682 0.066393 0.031045 -0.398424 -0.780620 0.481551
-0.065708 0.067336 0.032576 -0.376834 -0.761674 0.527114
-0.065927 0.067149 0.032105 -0.430665 -0.777840 0.457703
-0.065914 0.068186 0.033552 -0.370372 -0.719544 0.587436
-0.066153 0.067959 0.033112 -0.385920 -0.725687 0.569600
-0.066095 0.069082 0.034489 -0.361320 -0.697377 0.618962
-0.066343 0.068840 0.034064 -0.373855 -0.702729 0.605314
-0.066244 0.070043 0.035385 -0.323372 -0.640725 0.696349
-0.066509 0.069765 0.034981 -0.367449 -0.661424 0.653835
-0.066376 0.071036 0.036257 -0.308631 -0.650427 0.694040
-0.066646 0.070749 0.035861 -0.320950 -0.656623 0.682522
-0.066489 0.072063 0.037103 -0.316317 -0.611514 0.725254
-0.066771 0.071755 0.036722 -0.314327 -0.610493 0.726978
-0.066560 0.073182 0.037897 -0.391579 -0.545611 0.740928
-0.066853 0.072848 0.037529 -0.325987 -0.513960 0.793460
-0.066593 0.074375 0.038632 -0.384125 -0.460839 0.800047
-0.066895 0.074028 0.038282 -0.394682 -0.465744 0.792028
-0.066617 0.075579 0.039353 -0.345809 -0.483919 0.803890
-0.066918 0.075234 0.038999 -0.383251 -0.502218 0.775175
-0.066631 0.076820 0.040071 -0.355971 -0.468877 0.808356
-0.066941 0.076453 0.039726 -0.346897 -0.464549 0.814774
-0.066658 0.078023 0.040799 -0.350024 -0.499560 0.792416
-0.066959 0.077677 0.040446 -0.355356 -0.502185 0.788373
-0.055945 0.071200 0.039504 -0.010523 -0.626342 0.779477
-0.068345 0.035992 0.013163 -0.737061 0.044194 0.674380
-0.053829 0.074241 0.041638 -0.158026 -0.545694 0.822949
-0.020184 0.039135 0.037957 -0.054471 -0.995178 0.081568
0.003788 0.039041 -0.008063 -0.048012 -0.997825 0.045158
0.003149 0.039145 -0.006416 -0.173917 -0.979292 -0.103633
0.037708 0.038622 0.019534 0.356029 -0.905551 0.230696
0.041600 0.040182 0.018915 0.401991 -0.893684 0.199328
0.036824 0.042666 0.028465 0.190161 -0.643494 0.741454
-0.003176 0.034633 0.044269 -0.030949 -0.999385 -0.016499
0.009570 0.034608 0.023482 -0.043160 -0.998536 0.032597
0.009057 0.035113 0.025943 -0.243001 -0.871245 0.426476
0.047784 0.043874 0.021037 0.424439 -0.857108 0.291921
0.048462 0.044021 0.020359 0.476832 -0.842418 0.250925
0.047243 0.044162 0.022521 0.493550 -0.811852 0.311937
0.047880 0.044272 0.021922 0.426718 -0.823726 0.373348
0.046715 0.044492 0.023969 0.509165 -0.771638 0.381216
0.047373 0.044615 0.023359 0.497142 -0.772859 0.394384
0.046263 0.044962 0.025300 0.491223 -0.731820 0.472377
0.046890 0.045033 0.024733 0.509666 -0.732647 0.451076
0.045929 0.045615 0.026475 0.438968 -0.684596 0.581924
0.018331 0.034419 0.001577 -0.086714 -0.989877 -0.112361
0.018964 0.034536 0.000974 0.182891 -0.974025 -0.133511
-0.007230 0.034179 -0.018896 -0.099240 -0.958236 0.268207
-0.032661 0.035017 0.047588 -0.005210 -0.975235 0.221108
-0.068486 0.034521 -0.005352 -0.640043 -0.279536 -0.715685
0.037773 0.041268 0.026281 0.278516 -0.822625 0.495699
0.019176 0.034696 -0.000378 0.181425 -0.982747 -0.035958
0.036966 0.042086 0.027805 0.220478 -0.774432 0.592997
0.046505 0.045605 0.025980 0.487962 -0.694083 0.529284
0.019796 0.034784 -0.000960 0.044541 -0.998906 -0.014243
-0.019824 0.082406 0.057080 -0.454548 -0.079829 0.887138
-0.055010 0.033735 -0.010649 -0.072487 -0.984985 -0.156684
-0.054419 0.033776 -0.011178 -0.072928 -0.984958 -0.156651
-0.055823 0.033493 -0.008758 0.064218 -0.988662 -0.135731
-0.055218 0.033562 -0.009310 -0.083825 -0.988923 -0.122496
-0.056561 0.033385 -0.006976 0.040456 -0.999044 0.016578
-0.055986 0.033400 -0.007483 0.040231 -0.999052 0.016622
-0.057241 0.033385 -0.005287 -0.122958 -0.992411 0.001190
-0.056681 0.033373 -0.005771 0.047708 -0.998490 -0.027249
-0.057919 0.033383 -0.003598 -0.022458 -0.998097 -0.057430
-0.057361 0.033372 -0.004083 -0.108511 -0.993073 -0.045076
-0.058579 0.033407 -0.001941 -0.043545 -0.998543 0.031857
-0.058037 0.033369 -0.002400 -0.043056 -0.998568 0.031760
-0.059236 0.033431 -0.000289 -0.032170 -0.999368 -0.015103
-0.058680 0.033420 -0.000769 -0.032644 -0.999354 -0.015022
-0.059895 0.033454 0.001360 0.041754 -0.999022 0.014582
-0.059338 0.033444 0.000882 -0.043151 -0.998569 0.031593
-0.060553 0.033478 0.003009 -0.043188 -0.998574 0.031370
-0.059996 0.033467 0.002530 0.041809 -0.999024 0.014251
-0.061189 0.033539 0.004626 0.026176 -0.999409 0.022260
-0.060636 0.033520 0.004155 -0.044441 -0.998336 0.036752
-0.061837 0.033573 0.006260 0.024384 -0.999086 0.035108
-0.061278 0.033570 0.005779 0.023899 -0.999094 0.035213
-0.062480 0.033613 0.007883 0.024973 -0.999103 0.034207
-0.061921 0.033611 0.007403 0.024528 -0.999110 0.034304
-0.063111 0.033677 0.009484 -0.057659 -0.997030 0.051063
-0.062566 0.033650 0.009025 0.025116 -0.999127 0.033390
-0.063712 0.033791 0.011044 -0.057459 -0.997077 0.050365
-0.063181 0.033738 0.010605 -0.057490 -0.997075 0.050372
-0.064300 0.033929 0.012582 0.017845 -0.996765 0.078369
-0.063769 0.033877 0.012145 -0.069403 -0.992604 0.099601
-0.064846 0.034144 0.014057 -0.182359 -0.966859 0.178689
-0.064343 0.034040 0.013660 0.008572 -0.991678 0.128461
-0.065238 0.034646 0.015309 -0.514542 -0.782317 0.351037
-0.064829 0.034379 0.015043 -0.211953 -0.934976 0.284423
-0.076700 0.068502 0.007425 -0.827338 -0.555498 -0.083275
-0.069118 0.034985 -0.004804 -0.826115 -0.023139 -0.563026
0.043883 0.046300 0.028927 0.470363 -0.706495 0.528795
-0.060210 0.036286 0.045373 -0.567021 -0.258237 0.782177
0.044193 0.040898 0.006964 0.494870 -0.853502 -0.163210
-0.004158 0.038736 0.002422 -0.110825 -0.993157 -0.036837
-0.058159 0.057941 0.008597 -0.351577 -0.931345 0.094819
-0.002843 0.038842 0.000120 -0.015516 -0.996056 -0.087356
-0.013526 0.038288 0.017277 -0.032345 -0.999366 -0.014870
-0.091792 0.115860 0.039650 -0.857786 -0.492789 0.146157
-0.085852 0.111947 0.026168 -0.636603 -0.747745 0.188715
-0.072430 0.036040 0.003117 -0.994356 0.093441 0.050251
-0.057889 0.057795 0.010614 -0.202931 -0.978665 -0.032163
-0.057968 0.057863 0.009937 -0.260176 -0.959568 -0.107416
-0.058545 0.057817 0.012261 -0.184695 -0.979769 -0.077078
-0.058624 0.057886 0.011583 -0.184866 -0.979720 -0.077292
-0.059443 0.058016 0.013700 -0.138489 -0.989091 0.050188
-0.058947 0.057896 0.013309 -0.241543 -0.967829 0.070459
-0.059982 0.058258 0.015174 -0.262110 -0.956545 0.127753
-0.059499 0.058110 0.014804 -0.154914 -0.982375 0.104600
-0.060145 0.058570 0.016663 -0.282921 -0.940228 0.189546
-0.060297 0.058501 0.016093 -0.283117 -0.940224 0.189273
-0.060568 0.059032 0.017963 -0.304019 -0.918238 0.253794
-0.060734 0.058935 0.017416 -0.303972 -0.918235 0.253859
-0.060974 0.059510 0.019238 -0.301236 -0.921246 0.246095
-0.061143 0.059419 0.018692 -0.301461 -0.921257 0.245777
-0.061677 0.060058 0.020374 -0.223941 -0.938678 0.262170
-0.061235 0.059839 0.020070 -0.313831 -0.905386 0.285984
-0.062025 0.060573 0.021627 -0.222904 -0.914871 0.336638
-0.061586 0.060347 0.021325 -0.245628 -0.906165 0.344285
-0.062378 0.061197 0.022760 -0.333373 -0.831929 0.443572
-0.061935 0.060924 0.022515 -0.246396 -0.873278 0.420326
-0.062698 0.061834 0.023903 -0.223808 -0.902594 0.367742
-0.062272 0.061582 0.023623 -0.319694 -0.861930 0.393537
-0.063044 0.062428 0.025080 -0.142122 -0.909312 0.391091
-0.062606 0.062200 0.024782 -0.237275 -0.875550 0.420847
-0.063395 0.063010 0.026271 -0.340433 -0.849582 0.402883
-0.062962 0.062774 0.025977 -0.131266 -0.929774 0.343932
-0.063402 0.063600 0.027524 -0.363784 -0.851719 0.377143
-0.063600 0.063452 0.027024 -0.341605 -0.847060 0.407179
-0.063697 0.064277 0.028628 -0.357068 -0.822121 0.443418
-0.063904 0.064115 0.028143 -0.375140 -0.826721 0.419288
-0.064055 0.064955 0.029712 -0.363225 -0.851220 0.378804
-0.064196 0.064798 0.029243 -0.346094 -0.847678 0.402072
-0.064346 0.065638 0.030813 -0.343765 -0.821985 0.454054
-0.064556 0.065470 0.030330 -0.373171 -0.826348 0.421774
-0.064852 0.066440 0.031776 -0.280314 -0.818859 0.500893
-0.064459 0.066132 0.031542 -0.360250 -0.773993 0.520726
-0.065093 0.067223 0.032804 -0.305358 -0.774769 0.553615
-0.064702 0.066909 0.032573 -0.291522 -0.782551 0.550118
-0.064990 0.068016 0.033893 -0.363935 -0.748531 0.554304
-0.065232 0.067785 0.033458 -0.316791 -0.728965 0.606839
-0.065170 0.068913 0.034831 -0.338258 -0.677880 0.652733
-0.065424 0.068658 0.034412 -0.375657 -0.694600 0.613525
-0.065310 0.069893 0.035714 -0.364327 -0.646417 0.670382
-0.065575 0.069614 0.035312 -0.344846 -0.637245 0.689202
-0.065435 0.070899 0.036574 -0.309980 -0.614435 0.725522
-0.065708 0.070608 0.036182 -0.365033 -0.641220 0.674972
-0.065541 0.071942 0.037413 -0.318155 -0.616452 0.720253
-0.065822 0.071634 0.037030 -0.310239 -0.612405 0.727126
-0.065632 0.073017 0.038233 -0.387037 -0.587680 0.710517
-0.065916 0.072704 0.037853 -0.325100 -0.557591 0.763808
-0.065673 0.074188 0.038977 -0.399674 -0.461981 0.791729
-0.065975 0.073842 0.038626 -0.393243 -0.458994 0.796671
-0.065691 0.075410 0.039693 -0.391720 -0.470015 0.790975
-0.065991 0.075066 0.039337 -0.399500 -0.473588 0.784930
-0.065697 0.076671 0.040407 -0.348137 -0.441306 0.827073
-0.066008 0.076290 0.040054 -0.391837 -0.461930 0.795666
-0.065715 0.077908 0.041135 -0.338795 -0.499329 0.797426
-0.066019 0.077547 0.040778 -0.341924 -0.500967 0.795060
-0.065736 0.079121 0.041850 -0.333984 -0.472943 0.815340
-0.066047 0.078751 0.041506 -0.340363 -0.476171 0.810811
-0.079723 0.071616 0.005719 -0.652304 -0.720232 -0.236146
-0.062263 0.061898 -0.003078 -0.301361 -0.818896 -0.488458
0.002589 0.039165 -0.005922 -0.088402 -0.989753 -0.112131
-0.015820 0.038476 -0.001550 -0.024620 -0.998462 -0.049670
0.015888 0.034264 -0.000640 0.117309 -0.992733 -0.026828
0.006679 0.034291 0.019553 -0.067306 -0.988214 0.137491
0.002037 0.039407 0.033904 0.025890 -0.993219 0.113342
0.003936 0.039201 0.029068 0.034294 -0.997469 0.062293
0.010113 0.034570 0.023024 -0.043265 -0.998531 0.032618
0.009011 0.034825 0.024985 -0.172865 -0.971223 0.163837
0.017838 0.034794 0.003004 -0.344892 -0.853945 0.389650
0.018266 0.034530 0.002710 -0.225469 -0.904984 0.360788
0.033882 0.042635 0.028499 0.031399 -0.612454 0.789882
-0.072088 0.075060 0.036280 -0.568086 -0.437627 0.696966
0.036787 0.037973 0.003974 0.284737 -0.921724 -0.263344
0.037617 0.038532 0.003049 0.364373 -0.894937 -0.257527
0.035598 0.036992 0.006482 0.346321 -0.919125 -0.187803
0.036410 0.037456 0.005597 0.305804 -0.933531 -0.187094
0.034503 0.036174 0.008829 0.354780 -0.924102 -0.142011
0.035298 0.036609 0.007984 0.354462 -0.924226 -0.142000
-0.009434 0.038337 0.018067 0.041994 -0.999003 0.015141
-0.002569 0.039041 0.031483 0.034680 -0.997501 0.061550
0.017930 0.034992 -0.007153 -0.038003 -0.999277 0.001127
-0.033064 0.035835 0.049071 -0.611330 -0.722227 0.323519
0.017325 0.034932 -0.006591 0.180010 -0.983086 -0.033731
-0.029280 0.038043 0.029885 0.178275 -0.977094 0.116210
0.033494 0.035594 0.011022 0.185744 -0.979928 -0.072392
-0.013898 0.038807 -0.008893 0.045457 -0.998827 -0.016678
0.034217 0.035875 0.010290 0.364052 -0.926625 -0.093982
-0.048035 0.053642 0.036326 -0.720510 0.143014 0.678536
-0.054040 0.033644 -0.010370 -0.006337 -0.991643 -0.128857
-0.053437 0.033712 -0.010925 -0.006539 -0.991644 -0.128840
-0.054824 0.033456 -0.008522 -0.014117 -0.995497 -0.093741
-0.054236 0.033498 -0.009052 -0.014750 -0.995494 -0.093671
-0.055532 0.033403 -0.006786 -0.033355 -0.999360 -0.012918
-0.054975 0.033391 -0.007272 -0.033534 -0.999354 -0.012889
-0.056227 0.033376 -0.005073 0.047839 -0.998485 -0.027194
-0.055653 0.033391 -0.005580 -0.033151 -0.999355 -0.013799
-0.056906 0.033374 -0.003386 0.112296 -0.992716 0.043652
-0.056332 0.033390 -0.003891 0.033348 -0.997520 0.061986
-0.057582 0.033371 -0.001708 -0.043275 -0.998561 0.031674
-0.057009 0.033387 -0.002209 0.116653 -0.993173 -0.000304
-0.058226 0.033422 -0.000076 0.041845 -0.999015 0.014766
-0.057669 0.033411 -0.000556 -0.043287 -0.998559 0.031726
-0.058868 0.033473 0.001552 0.034047 -0.997508 0.061802
-0.058312 0.033462 0.001074 0.034058 -0.997507 0.061799
-0.059526 0.033496 0.003202 0.041826 -0.999023 0.014258
-0.058955 0.033513 0.002701 0.041818 -0.999023 0.014260
-0.060194 0.033496 0.004866 -0.128574 -0.991693 0.003634
-0.059640 0.033483 0.004391 0.048652 -0.998448 -0.027111
-0.060817 0.033579 0.006462 -0.047338 -0.998854 0.007063
-0.060286 0.033524 0.006021 -0.134699 -0.990616 0.023166
-0.061460 0.033619 0.008086 -0.046934 -0.998881 0.005881
-0.060916 0.033591 0.007627 -0.047055 -0.998875 0.005903
-0.062091 0.033684 0.009687 0.025333 -0.999118 0.033477
-0.061545 0.033656 0.009228 -0.058132 -0.996983 0.051434
-0.062721 0.033746 0.011288 -0.057298 -0.997082 0.050446
-0.062176 0.033719 0.010829 0.025511 -0.999147 0.032480
-0.063308 0.033884 0.012826 -0.148758 -0.986457 0.069097
-0.062790 0.033806 0.012408 -0.057084 -0.997139 0.049560
-0.063882 0.034047 0.014342 -0.229047 -0.972713 0.036957
-0.063378 0.033944 0.013945 -0.133435 -0.990879 0.018814
-0.055472 0.160705 0.003487 -0.640699 0.749706 0.165665
-0.064209 0.034272 0.015266 -0.302606 -0.920037 0.248922
-0.065355 0.035094 0.015811 -0.579497 -0.469916 0.665855
-0.057193 0.057595 0.010560 -0.356236 -0.929620 -0.094351
0.032766 0.035529 0.012795 0.242131 -0.964362 0.106675
0.033371 0.035594 0.012239 0.177781 -0.975774 0.127512
0.032161 0.035672 0.014381 0.301070 -0.929591 0.212643
0.032748 0.035714 0.013853 0.239211 -0.940081 0.242954
-0.025615 0.038003 0.023483 0.034853 -0.997503 0.061419
-0.025530 0.037964 0.022335 0.042679 -0.998987 0.014282
0.031928 0.039800 0.026398 0.197583 -0.733120 0.650766
-0.056566 0.057284 0.011565 -0.279721 -0.957764 -0.066657
-0.054162 0.062614 0.030368 -0.172231 -0.880464 0.441723
-0.067253 0.034952 -0.006438 -0.451329 -0.296379 -0.841701
-0.057680 0.057535 0.012689 -0.281306 -0.957486 -0.063937
-0.057745 0.057631 0.011991 -0.332627 -0.933117 -0.136569
-0.058232 0.057749 0.014186 -0.262253 -0.956532 0.127551
-0.058356 0.057735 0.013573 -0.326274 -0.944593 0.035920
-0.058755 0.058018 0.015639 -0.241576 -0.967803 0.070699
-0.058879 0.058004 0.015026 -0.241800 -0.967769 0.070392
-0.059237 0.058370 0.017028 -0.283213 -0.940162 0.189435
-0.059389 0.058301 0.016457 -0.283219 -0.940162 0.189427
-0.059947 0.058926 0.018185 -0.207424 -0.934093 0.290594
-0.059509 0.058696 0.017881 -0.324897 -0.889694 0.320761
-0.060353 0.059404 0.019461 -0.205162 -0.937081 0.282467
-0.059901 0.059207 0.019136 -0.205229 -0.937061 0.282485
-0.060738 0.059903 0.020701 -0.222689 -0.920685 0.320545
-0.060296 0.059692 0.020394 -0.214708 -0.923384 0.318219
-0.061075 0.060448 0.021931 -0.218550 -0.910230 0.351735
-0.060669 0.060223 0.021611 -0.231920 -0.905448 0.355495
-0.061406 0.061061 0.023097 -0.232472 -0.874241 0.426214
-0.060984 0.060810 0.022815 -0.235713 -0.872994 0.426990
-0.061755 0.061700 0.024222 -0.232471 -0.874894 0.424873
-0.061332 0.061452 0.023940 -0.232112 -0.875041 0.424768
-0.062077 0.062332 0.025365 -0.248599 -0.874283 0.416927
-0.061651 0.062084 0.025084 -0.229029 -0.882271 0.411270
-0.062447 0.062883 0.026578 -0.237586 -0.921493 0.307251
-0.062000 0.062669 0.026264 -0.218992 -0.927767 0.302143
-0.062786 0.063485 0.027750 -0.252629 -0.871975 0.419331
-0.062366 0.063225 0.027475 -0.267515 -0.865470 0.423553
-0.063074 0.064145 0.028877 -0.346782 -0.824301 0.447517
-0.062664 0.063867 0.028619 -0.252855 -0.871471 0.420241
-0.063126 0.064759 0.030082 -0.327420 -0.853827 0.404693
-0.063328 0.064604 0.029586 -0.332619 -0.855899 0.395982
-0.063725 0.065535 0.031034 -0.260962 -0.841516 0.473021
-0.063327 0.065237 0.030793 -0.356107 -0.785614 0.505964
-0.063926 0.066276 0.032116 -0.347712 -0.776474 0.525532
-0.063531 0.065971 0.031879 -0.268591 -0.819978 0.505465
-0.063854 0.067011 0.033250 -0.360573 -0.777511 0.515232
-0.064081 0.066807 0.032794 -0.348658 -0.773262 0.529627
-0.064066 0.067845 0.034234 -0.312294 -0.723895 0.615181
-0.064309 0.067613 0.033800 -0.368799 -0.747541 0.552421
-0.064230 0.068774 0.035154 -0.318880 -0.679777 0.660469
-0.064493 0.068502 0.034746 -0.320745 -0.680671 0.658642
-0.064370 0.069752 0.036033 -0.303736 -0.643305 0.702783
-0.064641 0.069464 0.035641 -0.323306 -0.653264 0.684631
-0.064483 0.070780 0.036879 -0.309460 -0.615666 0.724700
-0.064765 0.070472 0.036498 -0.307705 -0.614762 0.726213
-0.064592 0.071822 0.037723 -0.311489 -0.618946 0.721027
-0.064872 0.071515 0.037339 -0.309181 -0.617766 0.723030
-0.064694 0.072872 0.038559 -0.331023 -0.609220 0.720607
-0.064977 0.072562 0.038176 -0.313857 -0.600472 0.735477
-0.064750 0.074015 0.039324 -0.414368 -0.506974 0.755829
-0.065048 0.073673 0.038966 -0.343689 -0.472669 0.811457
-0.064780 0.075213 0.040054 -0.423829 -0.468642 0.775077
-0.065076 0.074874 0.039691 -0.415645 -0.464942 0.781709
-0.064769 0.076514 0.040756 -0.367483 -0.401513 0.838894
-0.065084 0.076130 0.040409 -0.424074 -0.425579 0.799402
-0.065140 0.080110 0.042620 -0.311519 -0.439018 0.842745
-0.065078 0.077417 0.041111 -0.367154 -0.494324 0.787935
-0.005371 0.039050 -0.009899 0.044320 -0.998907 -0.014839
0.018446 0.038902 0.042753 0.519597 -0.318827 0.792697
-0.033343 0.034610 0.040850 0.031065 -0.999232 0.023866
0.010025 0.038440 0.045032 0.174387 0.015042 0.984562
0.001801 0.038996 -0.004057 -0.158376 -0.977104 -0.142071
0.002377 0.039004 -0.004571 -0.076576 -0.985942 -0.148508
0.001921 0.034289 0.013146 -0.221815 -0.974913 0.018499
0.037091 0.038525 0.020105 0.355903 -0.905582 0.230770
-0.064696 0.035329 0.016670 -0.549317 -0.552762 0.626661
-0.020834 0.038167 0.011673 0.041679 -0.999017 0.015113
0.013194 0.034368 -0.009398 0.107904 -0.992404 0.059078
-0.026328 0.037770 0.018739 0.056843 -0.995958 -0.069543
-0.015503 0.038619 -0.004085 -0.098174 -0.992062 -0.078582
-0.022565 0.038091 0.013198 0.049074 -0.998381 -0.028752
0.017142 0.034830 -0.005281 0.180814 -0.981071 -0.069319
0.019963 0.034862 -0.002247 0.056377 -0.994374 -0.089675
0.031528 0.035756 0.016003 0.351938 -0.925216 0.141826
0.032160 0.035880 0.015412 0.300658 -0.939249 0.165576
0.030907 0.035865 0.017601 0.239352 -0.940065 0.242876
0.031511 0.035935 0.017053 0.354058 -0.916739 0.185022
0.030348 0.036084 0.019114 0.301293 -0.929542 0.212540
0.030936 0.036127 0.018586 0.239346 -0.940026 0.243033
0.016267 0.034503 -0.003279 0.181813 -0.977972 -0.102544
0.016478 0.034661 -0.004632 0.181435 -0.980951 -0.069397
0.029819 0.036358 0.020581 0.161053 -0.928519 0.334537
0.014859 0.034247 -0.000829 -0.017275 -0.996375 -0.083301
0.030377 0.036346 0.020098 0.301151 -0.916964 0.261698
0.029364 0.036768 0.021939 0.161151 -0.928471 0.334621
0.029892 0.036701 0.021499 0.161039 -0.928471 0.334675
-0.051941 0.033753 -0.011886 -0.035351 -0.999319 -0.010578
-0.048492 0.053632 0.035808 -0.776647 0.153202 0.611023
-0.053059 0.033580 -0.010116 -0.072755 -0.985003 -0.156445
-0.052455 0.033648 -0.010668 0.001309 -0.986876 -0.161476
-0.053812 0.033447 -0.008310 0.053397 -0.996447 -0.065133
-0.053238 0.033461 -0.008819 -0.109822 -0.993056 -0.042167
-0.054522 0.033394 -0.006573 0.040598 -0.999032 0.016912
-0.053947 0.033409 -0.007080 0.040596 -0.999033 0.016913
-0.055215 0.033367 -0.004861 -0.032792 -0.999369 -0.013656
-0.054641 0.033382 -0.005368 0.047828 -0.998490 -0.027013
-0.055863 0.033420 -0.003215 -0.043447 -0.998544 0.031975
-0.055320 0.033381 -0.003678 -0.043482 -0.998542 0.031982
-0.056525 0.033444 -0.001558 0.117026 -0.993129 -0.000148
-0.055953 0.033461 -0.002059 -0.043411 -0.998551 0.031818
-0.057199 0.033441 0.000116 0.033780 -0.997512 0.061876
-0.056627 0.033457 -0.000385 0.112671 -0.992689 0.043283
-0.057828 0.033519 0.001722 0.033888 -0.997517 0.061733
-0.057271 0.033508 0.001244 0.033800 -0.997519 0.061754
-0.058499 0.033515 0.003394 -0.032138 -0.999363 -0.015501
-0.057927 0.033532 0.002893 0.048819 -0.998377 -0.029343
-0.059169 0.033512 0.005061 0.112772 -0.993621 -0.000475
-0.058599 0.033527 0.004563 -0.043098 -0.998582 0.031251
-0.059840 0.033508 0.006725 -0.058354 -0.996880 0.053159
-0.059277 0.033509 0.006240 0.111063 -0.993674 0.016650
-0.060471 0.033574 0.008330 -0.046793 -0.998887 0.006007
-0.059926 0.033546 0.007870 -0.046920 -0.998880 0.006031
-0.061085 0.033665 0.009911 -0.057830 -0.996995 0.051551
-0.060555 0.033611 0.009473 -0.057935 -0.996987 0.051573
-0.061715 0.033727 0.011511 -0.046063 -0.998931 0.003984
-0.061170 0.033700 0.011053 -0.046166 -0.998926 0.004003
-0.062330 0.033814 0.013089 -0.056952 -0.997144 0.049612
-0.061800 0.033762 0.012652 -0.057199 -0.997127 0.049664
-0.062930 0.033925 0.014647 -0.056910 -0.997186 0.048808
-0.062400 0.033873 0.014209 -0.056746 -0.997197 0.048772
-0.055993 0.160231 0.003823 -0.592502 0.803512 0.057536
-0.062974 0.034035 0.015725 -0.082177 -0.984832 0.152819
-0.081436 0.116479 0.048349 0.155219 -0.266398 0.951283
-0.065423 0.036118 0.016128 -0.746002 0.110551 0.656703
-0.008884 0.037163 0.049473 0.353505 0.115234 0.928308
-0.066289 0.179927 -0.059633 -0.273080 0.841796 -0.465626
0.028910 0.037179 0.023296 0.300245 -0.900965 0.313232
0.029452 0.037140 0.022836 0.154750 -0.905785 0.394469
0.028478 0.037585 0.024651 0.293095 -0.875314 0.384604
0.029019 0.037561 0.024181 0.297109 -0.875174 0.381833
0.028073 0.038065 0.025947 0.389124 -0.832375 0.394633
-0.011272 0.038750 -0.014542 -0.071536 -0.986370 0.148182
-0.012425 0.038956 -0.012467 -0.036667 -0.999326 -0.001614
0.011949 0.117587 0.036636 0.307879 0.357872 0.881554
-0.036674 0.037338 0.045476 -0.710082 -0.126206 0.692716
-0.056800 0.057280 0.013096 -0.221483 -0.975012 0.017213
-0.056894 0.057321 0.012440 -0.281054 -0.957567 -0.063835
-0.057338 0.057521 0.014572 -0.326247 -0.944614 0.035604
-0.057461 0.057507 0.013959 -0.261877 -0.956615 0.127702
-0.057862 0.057791 0.016024 -0.262085 -0.956531 0.127903
-0.057985 0.057777 0.015412 -0.326366 -0.944562 0.035880
-0.058615 0.058264 0.017250 -0.189606 -0.955583 0.225636
-0.058162 0.058062 0.016922 -0.304105 -0.918169 0.253941
-0.059024 0.058753 0.018530 -0.324788 -0.889717 0.320804
-0.058584 0.058524 0.018226 -0.207421 -0.934072 0.290666
-0.059401 0.059286 0.019762 -0.204849 -0.937103 0.282622
-0.058962 0.059062 0.019460 -0.322632 -0.893043 0.313660
-0.059783 0.059799 0.020998 -0.167930 -0.927444 0.334137
-0.059340 0.059590 0.020691 -0.223170 -0.909603 0.350455
-0.060152 0.060331 0.022219 -0.227623 -0.905932 0.357037
-0.059709 0.060118 0.021913 -0.169467 -0.925086 0.339849
-0.060487 0.060950 0.023377 -0.238614 -0.872679 0.426021
-0.060061 0.060696 0.023101 -0.246023 -0.869560 0.428181
-0.060804 0.061583 0.024523 -0.259266 -0.871874 0.415471
-0.060381 0.061332 0.024241 -0.234215 -0.882323 0.408227
-0.061123 0.062217 0.025667 -0.230653 -0.882105 0.410719
-0.060699 0.061966 0.025387 -0.260208 -0.869754 0.419309
-0.061496 0.062758 0.026882 -0.200722 -0.929735 0.308714
